# .PCD v0.7 - Point Cloud Data file format
VERSION 0.7
FIELDS x y z
SIZE 4 4 4
TYPE F F F
COUNT 1 1 1
WIDTH 796
HEIGHT 1
VIEWPOINT 0 0 0 1 0 0 0
POINTS 796
DATA ascii
-0.25748479 0.11231665 0.0006980896
-0.2436735 0.11051841 0.0017265081
-0.23569453 0.1096295 0.0012742281
-0.26592803 0.11010359 0.0009354353
-0.27488333 0.10477278 0.00078678131
-0.25562918 0.10232462 0.0026800632
-0.24669421 0.10125063 0.0030955672
-0.23479027 0.099993333 0.0023542643
-0.26497245 0.10030286 0.0019973516
-0.27961445 0.095717296 0.00057017803
-0.25114346 0.092324451 0.0030235052
-0.24249548 0.091364533 0.0032024384
-0.23081225 0.090210244 0.0023022294
-0.26974851 0.091325536 0.0016868711
-0.2602967 0.090222642 0.0024726987
-0.27947164 0.086065948 0.0008161664
-0.24678892 0.082420766 0.0032653213
-0.2343424 0.081158862 0.0031053424
-0.22669441 0.080450997 0.0024229288
-0.26974934 0.081774637 0.0018008947
-0.26037174 0.080746338 0.002520144
-0.28432655 0.076982901 0.00049465895
-0.23830044 0.072186008 0.0034738183
-0.23020595 0.071424246 0.0032283068
-0.21882635 0.070425913 0.0022007227
-0.26979005 0.07224898 0.0018755198
-0.26047283 0.071290463 0.0025414228
-0.25140005 0.07036984 0.0030663013
-0.2121678 0.066872329 0.00065743923
-0.28421861 0.067348555 0.00070238113
-0.23414439 0.062469944 0.0035969615
-0.22602308 0.061740756 0.0034281015
-0.26520663 0.062296212 0.0022394657
-0.25606966 0.061422974 0.0027832985
-0.24713296 0.060577288 0.0032259226
-0.21056575 0.057351232 0.0025475025
-0.2745977 0.060027748 0.0015839338
-0.20007926 0.053523883 0.00088745356
-0.22590119 0.052465484 0.0037062168
-0.28899294 0.054989964 0.00050652027
-0.26077211 0.052438326 0.0024871826
-0.25177902 0.051640168 0.0029422045
-0.23861563 0.05048313 0.0034757257
-0.20229393 0.04745958 0.0029580593
-0.19127679 0.046614617 0.0019519925
-0.27939326 0.050933309 0.001285851
-0.2700265 0.050108276 0.0019106269
-0.21374077 0.045311093 0.0037050843
-0.17963475 0.039645001 0.0019392371
0.21080765 0.0082001388 0.00071960688
0.21774884 0.0069080815 0.009994626
0.22808647 0.0062638819 0.0075734258
0.23110028 0.006455183 0.0020595193
-0.28895742 0.045382939 0.00064051151
-0.25204498 0.042304836 0.0028030276
-0.23888874 0.04122588 0.0033346415
-0.23030239 0.040526591 0.0036170483
-0.19024628 0.037389517 0.0032833219
-0.17184436 0.036029875 0.0020542741
0.18390951 0.0078328177 0.003516376
0.1931449 0.006544739 0.010890722
0.20290512 0.0056028701 0.013150811
0.22180216 0.0037792921 0.017526746
0.23919185 0.0030164719 0.0094781518
0.24138443 0.0035411716 0.00027215481
-0.27946562 0.041407198 0.0013228655
-0.27017891 0.040650845 0.0018754601
-0.26107591 0.039914556 0.0023471713
-0.22197837 0.036796182 0.0037679672
-0.20964998 0.035834543 0.0039182305
-0.2016744 0.035223462 0.0038638115
-0.1610176 0.032270737 0.0013546944
0.15137124 0.0082589164 0.00028121471
0.15978476 0.006897755 0.010073185
0.16760457 0.0061675906 0.011820853
0.17783143 0.0052121729 0.014113188
0.19519348 0.003590174 0.018004954
0.22886395 0.00082781538 0.020284891
-0.18226761 0.030760705 0.0035636425
-0.1499607 0.028500229 0.0011005998
0.12204671 0.0078786314 0.0031681657
0.13010603 0.006766744 0.010415614
0.13835451 0.0060215443 0.012197971
0.14913803 0.0050467551 0.014536142
0.16486339 0.0036251955 0.017946482
0.20320524 0.00041202456 0.022633493
0.23926619 -0.0021126196 0.019905865
0.24860838 -0.00179049 0.0051939487
-0.29370803 0.036167443 0.00044733286
-0.24358463 0.032318801 0.0029526949
-0.23494059 0.031664029 0.0032505989
-0.17070073 0.026923895 0.0035749674
-0.14150745 0.024859339 0.002378881
-0.13184339 0.024264261 0.00065714121
0.091631114 0.0074800849 0.0062029362
0.099060476 0.0066297129 0.010773778
0.10776967 0.0058686994 0.012593687
0.11914986 0.0048738755 0.014978111
0.13301098 0.0036619902 0.017885029
0.17348693 0.00036629662 0.022726119
0.1830816 -0.00040441751 0.023715854
0.21310219 -0.0028163604 0.026819646
0.24825829 -0.0045333207 0.013837814
-0.2842626 0.032254934 0.001039803
-0.27497423 0.031557284 0.0015491247
-0.26585859 0.030876458 0.0019886494
-0.25688821 0.03020902 0.0023812652
-0.21819979 0.027360439 0.0036025047
-0.20992953 0.026756659 0.0037823319
-0.2017706 0.02616284 0.0039311647
-0.18979543 0.025298871 0.0040301681
-0.14819694 0.022361532 0.0033700466
-0.11951882 0.020361543 0.0025216937
-0.10907531 0.019638278 0.0021333098
-0.099835098 0.019091479 0.00032556057
0.053860933 0.0079238862 0.0028364658
0.063446224 0.0067485124 0.01052171
0.072706342 0.0059663281 0.012391925
0.084798098 0.0049447976 0.01483649
0.099518836 0.0037006736 0.017820477
0.14484879 0.00011961907 0.023078561
0.15492007 -0.00066582859 0.024086773
0.19330157 -0.0036377199 0.027591944
0.22421564 -0.0059065819 0.028452873
-0.18200392 0.021758117 0.0040525198
-0.15901428 0.020156972 0.0039973259
-0.091012746 0.015479602 0.0028653145
-0.080812871 0.014780454 0.0026553273
-0.070750684 0.014091447 0.0024365783
-0.060816228 0.013411283 0.0022190809
-0.051139832 0.012760878 0.0018075109
0.020479262 0.0075097308 0.005980134
0.029186934 0.0066039786 0.010900795
0.038985223 0.0058043525 0.012812495
0.048604369 0.0050193481 0.014689147
0.064256907 0.003741391 0.017752469
0.073354632 0.0030062869 0.019406199
0.10953757 0.00026784837 0.022925735
0.11756885 -0.00033990666 0.023705661
0.16329351 -0.0037750266 0.027732849
0.23258013 -0.0086541399 0.028450906
0.24407615 -0.0091930553 0.024101913
0.25638974 -0.0088342242 0.0039887428
-0.2937029 0.026571393 0.00054848194
-0.2354278 0.022476137 0.0028899908
-0.14031208 0.015943892 0.0040697455
-0.12934697 0.01520212 0.0040097833
-0.042292506 0.00949049 0.00044870377
-0.021688044 0.0079737902 0.0024713278
-0.014236599 0.0070753843 0.0092852712
-0.0067725182 0.0064522624 0.011298895
0.003606379 0.0056344196 0.013253689
0.013790965 0.004831899 0.015171885
0.027081072 0.0037843287 0.017680705
0.083562791 -0.00040824339 0.023832619
0.12925515 -0.0037389137 0.027748585
0.18273029 -0.0075364076 0.030584633
0.20322928 -0.008992061 0.03167069
-0.27978903 0.022421472 0.0012239218
-0.27070469 0.021800816 0.0015882254
-0.26175082 0.021190606 0.0019194484
-0.24857944 0.020296991 0.0023326874
-0.20647013 0.017457016 0.0033429861
-0.1943481 0.016644813 0.0035357475
-0.17070246 0.015064202 0.0038439035
-0.12207121 0.011833057 0.0041170716
-0.11136141 0.011128247 0.0040530562
-0.10084897 0.01044029 0.0039192438
-0.052020103 0.0068599209 0.01036191
-0.040869266 0.0060120374 0.01238817
-0.02993381 0.0051805452 0.014375269
-0.012168795 0.0038296618 0.017605007
0.032698959 0.00059067458 0.022590101
0.044775605 -0.00026812404 0.023693264
0.053674757 -0.00090094656 0.024505734
0.076766014 -0.0025428236 0.02661109
0.093320906 -0.0037001744 0.027757943
0.14989525 -0.0076008029 0.030676842
0.17389821 -0.0092554949 0.031910837
0.21458182 -0.012041315 0.03365773
0.22315805 -0.012613297 0.033745587
0.25372139 -0.014004059 0.022172928
0.26301867 -0.013812967 0.007381022
-0.22743547 0.01581496 0.0027002096
-0.21494466 0.01499851 0.0029562116
-0.15930223 0.011372983 0.0038738251
-0.15166879 0.010875911 0.0039938688
-0.088272423 0.0064145178 0.011465669
-0.080403328 0.0058375373 0.012844205
-0.068794578 0.0049863458 0.014878035
-0.061182201 0.0044281855 0.016211689
-0.049949259 0.0036045574 0.018179655
-0.039173007 0.0028303936 0.019756913
-0.022347391 0.0016718172 0.021244526
0.00047504902 0.00010030344 0.023262382
0.010004282 -0.00055586547 0.024104953
0.063862592 -0.0042303354 0.028203905
0.11527082 -0.0076683722 0.030769825
0.13816288 -0.0091992356 0.031910598
0.19264989 -0.012810975 0.03400445
0.2627877 -0.016462669 0.017312288
-0.26474756 0.0081683397 0.14555281
-0.25687557 0.0076874346 0.14532614
-0.24744064 0.0075086579 0.13684189
-0.29840052 0.017297491 0.0004196167
-0.28912312 0.016700275 0.00078165531
-0.18668443 0.01017119 0.0034326315
-0.14040112 0.0072422624 0.0041965246
-0.12934172 0.0065479577 0.0042640567
-0.10415104 0.0045259856 0.013517082
-0.089693516 0.0033675358 0.018786013
-0.029857904 -0.00063584 0.024252117
0.01814425 -0.0038136132 0.027937591
0.084182143 -0.0080947988 0.031137049
0.10295182 -0.0093112662 0.032039165
0.15812187 -0.012856681 0.034067333
0.23357737 -0.017578728 0.034218431
0.24317384 -0.018026706 0.031086147
0.27341306 -0.018898625 0.010068476
0.27795768 -0.01876447 0.0014320612
-0.28381497 0.0070013702 0.13736922
-0.27496445 0.0064484552 0.13772285
-0.26434022 0.0058669634 0.13633537
-0.25615203 0.0055162758 0.13311815
-0.247199 0.0052379631 0.12728345
-0.24338651 0.0054674 0.11713111
-0.27108622 0.012402624 0.0013284087
-0.26219052 0.011850506 0.001603961
-0.2490558 0.011036605 0.0019822121
-0.24043113 0.010502867 0.0022153854
-0.1748454 0.0064568594 0.0037058592
-0.12579411 0.0030494556 0.013225734
-0.1156733 0.0022686459 0.0169034
-0.079159558 -0.00026018545 0.023821652
-0.072007358 -0.00072088093 0.024413407
-0.061423987 -0.0014025979 0.025289118
-0.044161022 -0.002514571 0.026717544
-0.021108687 -0.0039762519 0.028113544
-0.011561573 -0.0045756623 0.028560638
0.037116826 -0.0076316819 0.030835509
0.042950332 -0.0079979599 0.031109273
0.054456919 -0.0087203905 0.031648159
0.074094862 -0.0099532157 0.032565117
0.12410602 -0.013060708 0.034192741
0.20413502 -0.018003233 0.036132991
0.21286748 -0.018542558 0.036345005
-0.28385341 0.004799962 0.12439346
-0.27501541 0.0042658448 0.12472713
-0.26737756 0.0038393214 0.12418753
-0.25529391 0.0032768436 0.12068141
-0.23981094 0.0029642954 0.10654998
-0.28008783 0.0098003224 0.0010772943
-0.23191422 0.006906718 0.0024772882
-0.21930617 0.0061514452 0.0027956367
-0.21102101 0.0056556277 0.0029928684
-0.19876963 0.0049232468 0.0032660365
-0.14925319 0.0016607307 0.01151228
-0.13754559 0.0007533282 0.016674161
-0.11120093 -0.0010468028 0.022580981
-0.098817527 -0.0018779039 0.025002003
-0.00091934204 -0.0078953803 0.031085074
0.008315742 -0.0084564351 0.031503201
0.093510568 -0.01359386 0.034453928
0.16805564 -0.018053632 0.036198616
0.17962731 -0.018745951 0.036470056
0.25258267 -0.022699371 0.028465986
0.26351249 -0.023100667 0.022756636
0.28296319 -0.023667049 0.0091069341
0.28764835 -0.023605756 0.0011499524
-0.28377444 0.0025253743 0.11114228
-0.27460468 0.001979433 0.11173111
-0.26677799 0.0015496388 0.11131328
-0.25725466 0.001099132 0.10896182
-0.23901206 0.0005370155 0.096804857
-0.2359091 0.00081279874 0.085290074
-0.29379594 0.007440567 0.00065231323
-0.19072974 0.0014532991 0.0034800768
-0.16283661 -0.00052022934 0.013228774
-0.15126675 -0.0013654381 0.017949164
-0.12869573 -0.0028521717 0.023033679
-0.12019557 -0.0034010187 0.024667382
-0.092387617 -0.0051537268 0.028922915
-0.034550846 -0.0085576959 0.031632543
0.06421563 -0.014312737 0.034788966
0.13470414 -0.018394127 0.036382318
0.14449385 -0.018960945 0.036603153
0.22358441 -0.023499697 0.037355423
0.27258742 -0.025555061 0.01857245
-0.28884435 0.00049610808 0.096796572
-0.27870172 -0.00011189654 0.098125637
-0.26999706 -0.00060113519 0.098368704
-0.25945133 -0.0011247024 0.096757472
-0.25077403 -0.0014904514 0.093638539
-0.23301083 -0.0018671453 0.077001452
-0.23394495 -0.0013785139 0.064955473
-0.2622214 0.002477508 0.0016937256
-0.24909109 0.0017389022 0.0020776391
-0.24046618 0.0012541711 0.0023179054
-0.17763829 -0.0026301257 0.013803661
-0.14242637 -0.0049451888 0.024047136
-0.098208189 -0.0076140054 0.030340791
-0.080098599 -0.0086653754 0.031770706
-0.06976983 -0.0092511699 0.03220439
-0.059594005 -0.0098282844 0.032631636
-0.049567759 -0.010396924 0.033052623
-0.011229813 -0.012553025 0.034160256
0.0189991 -0.014245268 0.034818172
0.078303158 -0.017565414 0.036116004
0.10472006 -0.019044239 0.036690474
0.16066909 -0.026034329 0.14423534
0.11498162 -0.019618675 0.036913455
0.16189767 -0.022955 0.057500064
0.18881251 -0.02371835 0.037598789
-0.28874713 -0.0019236542 0.082778037
-0.27833337 -0.0025315247 0.084344208
-0.26945436 -0.0030178353 0.084718108
-0.26195079 -0.0033940785 0.083989739
-0.24980849 -0.0039149672 0.080166221
-0.22797453 -0.0042556971 0.055372059
-0.27560312 8.4348023e-05 0.0013042688
-0.22772884 -0.0025168732 0.0026920438
-0.21934921 -0.0029712282 0.0029065609
-0.21106559 -0.0034200549 0.0031089187
-0.18751615 -0.0050981864 0.015776873
-0.16176313 -0.00671909 0.023187518
-0.14830059 -0.0075254887 0.025830507
-0.11179376 -0.009639401 0.030807853
-0.026198745 -0.014344402 0.034920275
0.034137875 -0.01760678 0.0361889
0.042735338 -0.018071692 0.036371171
0.05402261 -0.018681917 0.036606133
0.12514651 -0.022508353 0.037524045
0.15662387 -0.024194293 0.037703812
0.23366213 -0.028273016 0.036716342
0.24337471 -0.028710887 0.034295976
0.29250324 -0.030519873 0.0098487139
-0.28864592 -0.0044142008 0.068350673
-0.27795202 -0.0050204992 0.070170641
-0.26889628 -0.0055027828 0.070681989
-0.26122558 -0.0058793053 0.070056498
-0.25169098 -0.0062920712 0.067451596
-0.22588724 -0.0069657005 0.045731962
-0.22378868 -0.0067755468 0.035862982
-0.22782314 -0.0061989725 0.023670018
-0.20451981 -0.0071215928 0.014451206
-0.17727447 -0.0087801553 0.022854805
-0.091581881 -0.013552278 0.034585416
-0.00080913305 -0.018289991 0.03651458
0.0082361698 -0.018761851 0.036698818
0.089446574 -0.022976622 0.037635624
0.12510449 -0.026735408 0.10116911
0.15997183 -0.029513601 0.13361281
0.17750421 -0.027530484 0.038112879
0.19767283 -0.028573509 0.038222671
0.20858799 -0.029137991 0.038282096
-0.28841543 -0.0069879517 0.053605914
-0.27759606 -0.0075790063 0.055553615
-0.26832229 -0.0080589801 0.056243539
-0.26047981 -0.0084349811 0.055728495
-0.25072932 -0.0088514313 0.053211689
-0.24222612 -0.0091759078 0.049594581
-0.22036833 -0.009652786 0.027166426
-0.21585876 -0.0095515251 0.015200257
-0.18438083 -0.011344042 0.023546576
0.042745471 -0.029226879 0.26569045
0.053180397 -0.029497199 0.25655138
0.062550515 -0.02982394 0.25143251
-0.066939354 -0.017531268 0.036288321
-0.057004839 -0.018030576 0.036481321
-0.047209233 -0.018522892 0.036671102
-0.034361184 -0.019168533 0.036916792
0.062730312 -0.024021313 0.037807643
0.10162404 -0.027696034 0.10178453
0.10821417 -0.028117662 0.1052357
0.13261101 -0.027506478 0.038170397
0.1447463 -0.028111709 0.038233638
0.16161266 -0.029796029 0.069313586
0.16367888 -0.029055927 0.03833127
0.25259462 -0.033280335 0.031070113
0.26364762 -0.033700161 0.026296556
0.27277523 -0.034040719 0.022129238
0.28367889 -0.034446955 0.017129004
-0.29466099 -0.0092817917 0.036531925
-0.28250426 -0.0099391267 0.039627552
-0.27721858 -0.010213844 0.040514827
-0.26355743 -0.010888144 0.041331053
-0.25621474 -0.011215895 0.040335655
-0.24673384 -0.011601001 0.037475705
0.028684378 -0.030501291 0.27335656
0.032549918 -0.030542821 0.26741451
0.039872885 -0.030649859 0.25733089
0.049791425 -0.030879861 0.24718919
0.058654249 -0.031158 0.24113014
-0.079605997 -0.019601099 0.037157834
-0.018370628 -0.022548787 0.037722528
-0.012240767 -0.022843264 0.037754238
0.017614663 -0.024277292 0.037900329
0.10254052 -0.02835664 0.038322151
0.11273292 -0.028846182 0.038371146
0.19082998 -0.032584447 0.038218617
0.21900003 -0.033928961 0.038002491
0.30272475 -0.037083507 0.0025596023
-0.29467529 -0.012011867 0.020623028
-0.28236371 -0.012648791 0.023902833
-0.2719999 -0.013160788 0.025521457
-0.25909382 -0.013758551 0.02565515
-0.25196391 -0.01406106 0.02441889
-0.23960006 -0.014541864 0.020206213
0.020586282 -0.031976923 0.27735919
0.025251895 -0.031979434 0.26731357
0.031687021 -0.032040901 0.25619909
0.038008094 -0.032142468 0.24722821
0.047715068 -0.032359954 0.23635948
0.058095574 -0.032681115 0.22892272
0.077246666 -0.033838153 0.24188277
0.035025418 -0.027584447 0.038311779
0.043508321 -0.02797633 0.038351893
0.088399857 -0.031450067 0.10472262
0.11986634 -0.033011954 0.10998601
0.12895334 -0.033425055 0.10971272
0.13899562 -0.033828862 0.10691905
0.16020222 -0.035189245 0.12501091
0.15405801 -0.03306929 0.038206458
0.29258883 -0.03893476 0.013611197
-0.30057967 -0.014542107 0.0028676987
-0.28777605 -0.015176278 0.0065728426
-0.28135318 -0.015495908 0.0085142255
-0.26957738 -0.016071606 0.011505067
-0.25979418 -0.016526695 0.012711346
-0.24871701 -0.01706446 0.015316546
-0.23194557 -0.01788611 0.019671142
-0.22156209 -0.018387415 0.021959364
0.029810965 -0.033585258 0.24615383
0.036027908 -0.033688884 0.23668966
0.044379354 -0.033875361 0.22658271
0.052758902 -0.034112576 0.21920386
0.078169048 -0.035459168 0.23140934
0.00012055039 -0.028503465 0.038478017
0.0090405047 -0.028899131 0.038515508
0.10012642 -0.03420265 0.10853583
0.14801815 -0.036300696 0.10728621
0.12738344 -0.03413206 0.038104177
0.16106537 -0.036384381 0.080048978
0.20578791 -0.037593674 0.037539423
0.22895129 -0.038603295 0.036652744
0.23889178 -0.039012868 0.034965396
-0.21028227 -0.021893412 0.025369167
0.022398293 -0.03511199 0.24609318
0.026813388 -0.035166934 0.23732665
0.032947063 -0.035277653 0.22742271
0.041049004 -0.035457969 0.21659347
0.047751278 -0.035639659 0.20978612
0.079025626 -0.03712897 0.22044694
-0.046116114 -0.029065199 0.038611591
-0.036593109 -0.029470259 0.038654685
0.078411072 -0.035355739 0.10490018
0.11012524 -0.036842059 0.11412799
0.13774659 -0.038017455 0.11428785
0.16299385 -0.037929378 0.037555099
0.17449653 -0.038416643 0.037474811
0.27786517 -0.042544033 0.020126939
0.30087981 -0.043305475 0.0058476925
-0.26068944 -0.022674475 0.016047716
-0.24999934 -0.023135837 0.018260658
-0.23911315 -0.023609258 0.020811737
-0.19991153 -0.025289912 0.028000116
-0.19082993 -0.02567558 0.029361665
0.036019444 -0.03763853 0.25582147
0.044390231 -0.037996605 0.25729004
0.052912265 -0.03833288 0.25645003
0.062913984 -0.038686976 0.25211263
0.079875767 -0.038855277 0.20904756
0.074186713 -0.03844557 0.19430506
-0.024294645 -0.032556549 0.038523614
-0.015129745 -0.032928377 0.038461983
0.020385087 -0.034369253 0.038222909
0.089542121 -0.038069256 0.1116395
0.11878535 -0.039329488 0.11754048
0.1482619 -0.040475074 0.11318552
0.16037685 -0.041002244 0.11604983
0.1527468 -0.040411584 0.092876494
0.13427073 -0.038989708 0.037456512
0.14631039 -0.039478183 0.037376404
0.22234984 -0.042556416 0.036305368
0.24804211 -0.043540005 0.03127718
0.25754213 -0.04389273 0.028511167
0.26861203 -0.044288483 0.024027884
-0.29309195 -0.024383973 0.0058097839
-0.28485548 -0.024736788 0.0094310641
-0.27695501 -0.025074266 0.01280117
-0.21360421 -0.027656052 0.026146054
-0.18152654 -0.028947268 0.031134725
0.039857507 -0.039505579 0.24678719
0.049570084 -0.039886128 0.24715206
0.063485175 -0.040377118 0.24170917
0.076154053 -0.040341098 0.1836035
0.06997931 -0.039414071 0.10798723
0.12850267 -0.041785792 0.11884874
0.15242609 -0.042568706 0.10275495
0.16140452 -0.042775512 0.087139487
0.18291603 -0.043147434 0.036130786
0.19402824 -0.043577265 0.03593713
-0.22778398 -0.030061916 0.024045944
-0.16846722 -0.032312822 0.033027768
-0.16028196 -0.032620691 0.033815384
0.043301046 -0.041392922 0.23698115
0.068280339 -0.042260271 0.22750401
0.078039825 -0.042286728 0.17236716
-0.0066668093 -0.038332492 0.0377388
0.0052330494 -0.038772665 0.037664711
0.061079353 -0.041255701 0.10601753
0.078149587 -0.041933358 0.11352277
0.09971714 -0.042754687 0.117266
0.10995805 -0.0431429 0.11875087
0.15261659 -0.04421816 0.035732329
0.28812587 -0.049100429 0.01346004
-0.23860377 -0.03264698 0.021439314
-0.20419139 -0.033878267 0.02777797
-0.19515431 -0.034200396 0.029044807
-0.14859933 -0.035856817 0.034572601
0.014250427 -0.042142782 0.21451378
0.023971051 -0.042501763 0.219953
0.035393655 -0.04291863 0.2247225
0.044045508 -0.043228552 0.22643229
0.052795142 -0.043533877 0.22551674
0.063168138 -0.043884896 0.22085273
0.072440863 -0.044183191 0.2116251
0.079305589 -0.044265959 0.15970504
0.074957132 -0.044080015 0.1489915
0.16075715 -0.046974037 0.10733825
0.20421152 -0.048279718 0.033979952
0.22750024 -0.049097124 0.033088088
0.23753974 -0.049446076 0.031583071
-0.27938855 -0.034283709 0.0064300299
-0.26933068 -0.034619991 0.011951029
-0.25691259 -0.035035022 0.015749931
-0.18228114 -0.03752894 0.030478895
-0.16932321 -0.037961897 0.032197177
-0.14105588 -0.038906343 0.034936368
-0.1296851 -0.039286241 0.035620749
0.01559937 -0.044148304 0.20413643
0.02519232 -0.044469044 0.20954368
0.032812178 -0.044723764 0.21274868
0.044701874 -0.045121089 0.21539322
0.053420663 -0.045412291 0.21431735
0.077404499 -0.046209544 0.1373589
0.073924661 -0.046092585 0.12344688
0.090243876 -0.046637457 0.1177938
0.1181438 -0.04756967 0.12142223
0.12932211 -0.047943078 0.12101072
0.13772964 -0.048223883 0.11986667
0.14771305 -0.04855727 0.11759037
0.13978687 -0.048288196 0.034068525
0.16341828 -0.049077611 0.033708632
0.17263034 -0.049385343 0.033568323
0.26755017 -0.052555602 0.020765185
0.27841908 -0.052918404 0.015205562
0.29251665 -0.053388845 0.0054195523
-0.23009849 -0.03891287 0.021833181
-0.22016287 -0.039221276 0.023702919
-0.1194067 -0.042370658 0.035270691
0.011060178 -0.046037186 0.1893982
0.021671385 -0.046352781 0.19605315
0.030086726 -0.046606373 0.20021495
0.040119827 -0.046913709 0.20348874
0.047740012 -0.04715329 0.20389235
0.057745636 -0.047477227 0.20125875
0.068787217 -0.047848616 0.19364902
0.073699772 -0.048022848 0.1872209
0.079801798 -0.048250772 0.17534894
0.083879352 -0.048448622 0.15201423
0.08339107 -0.048470542 0.13938737
0.16834141 -0.051271468 0.099913597
0.21398008 -0.052917283 0.03101784
0.24825655 -0.054016527 0.025536954
0.25782883 -0.054327015 0.022822261
0.28684413 -0.055289481 0.0073814392
-0.20701706 -0.042561971 0.024968863
-0.19335294 -0.042957023 0.026978195
-0.15897769 -0.043954942 0.031350493
-0.1509003 -0.044190876 0.032135606
-0.1095719 -0.045407623 0.03454566
0.012533069 -0.048187144 0.17835689
0.02289772 -0.048457138 0.18485346
0.034630984 -0.048775181 0.19013089
0.043566048 -0.049029745 0.1920763
0.052664757 -0.049306098 0.19118544
0.063454866 -0.049657602 0.18614301
0.084823608 -0.050630782 0.12970859
0.1535003 -0.052816562 0.10624236
0.14800528 -0.053101849 0.030974686
0.18267563 -0.054139689 0.030128956
0.19382754 -0.054473508 0.02985692
-0.2499122 -0.044420559 0.010323882
-0.24180323 -0.044612076 0.014267623
-0.13255161 -0.047506068 0.032442689
-0.12515414 -0.047710247 0.032756329
-0.099853158 -0.048408579 0.033829808
0.0075974762 -0.050264176 0.16213769
0.019185245 -0.050515957 0.17021602
0.028121948 -0.050722089 0.17511243
0.038731873 -0.05098325 0.17909458
0.049031734 -0.051267035 0.17958724
0.058988273 -0.051574074 0.17641681
0.068684906 -0.05190799 0.16943994
0.085757434 -0.0528396 0.11884433
0.093356848 -0.053046815 0.11944896
0.10342813 -0.053319678 0.12044722
0.15244301 -0.054979566 0.088301778
0.22347155 -0.057513706 0.027365446
0.2337018 -0.057811085 0.026126623
0.27153498 -0.058998484 0.011773229
-0.22760957 -0.047981277 0.016212404
-0.2219345 -0.04810987 0.017878056
-0.18354434 -0.049027413 0.025171161
-0.17455477 -0.049244914 0.026657581
-0.090632915 -0.051370084 0.032629192
0.0092029572 -0.052573469 0.15035933
0.020412624 -0.052773867 0.15812671
0.029090554 -0.052945454 0.16276681
0.039523184 -0.053173374 0.16653728
0.049693763 -0.053437207 0.16673666
0.057814389 -0.053680118 0.16420224
0.067910999 -0.05402587 0.15739939
0.075706214 -0.054356221 0.14685136
0.13196677 -0.057254251 0.027822614
0.14166671 -0.057510674 0.027611971
0.15830392 -0.057950482 0.027250707
0.16759455 -0.058197062 0.026967287
0.20342353 -0.059150428 0.02567035
0.25423717 -0.060585734 0.016881704
-0.21033174 -0.051371153 0.017482877
-0.15585595 -0.052561082 0.026672959
-0.14366895 -0.052837919 0.028018892
-0.11740667 -0.053456463 0.029452682
-0.082294166 -0.054297861 0.030406892
-0.072444618 -0.054540895 0.030206263
0.010702461 -0.054952472 0.13801283
0.021471947 -0.055104937 0.14535597
0.0300892 -0.05524553 0.14999032
0.04026559 -0.055442195 0.15341726
0.04803589 -0.055628076 0.15364993
0.058436602 -0.055928048 0.15054476
0.073993057 -0.056520145 0.13632452
0.1128661 -0.057698637 0.12089127
0.12452331 -0.057977296 0.12125391
0.13307223 -0.058199964 0.12029642
0.14317727 -0.058478035 0.11817336
0.15274838 -0.058756892 0.11512792
0.21333458 -0.06162158 0.022443831
0.24590737 -0.062498022 0.016926467
0.2672857 -0.063261718 0.00072199106
-0.21779794 -0.054294232 0.0096838474
-0.19970739 -0.054585051 0.01621449
-0.16660774 -0.055209771 0.023010492
-0.1266278 -0.056041438 0.02693212
-0.061040401 -0.057503596 0.027925193
0.019384682 -0.057525408 0.12765402
0.031067491 -0.057626661 0.13668531
0.038060188 -0.057738516 0.1392405
0.04871285 -0.057968877 0.13979787
0.059083432 -0.058264937 0.13634706
0.068207413 -0.058638811 0.12700343
0.13191289 -0.061961785 0.022135317
0.13921081 -0.062130623 0.021904051
0.14882004 -0.06235294 0.021599472
0.17912677 -0.063054085 0.020639002
0.18817809 -0.063263498 0.020352125
0.23327462 -0.064339951 0.017080128
0.25411302 -0.064983353 0.007448256
-0.19048727 -0.057766795 0.013549685
-0.1799646 -0.057920579 0.016633451
-0.14501572 -0.058526933 0.022318006
-0.13687462 -0.058674555 0.023338258
-0.10733637 -0.059258249 0.024748445
-0.0965693 -0.059471 0.025263131
-0.05064708 -0.060442399 0.02440697
-0.041225553 -0.060643822 0.024130046
0.023875743 -0.060261756 0.10677195
0.031443805 -0.060266521 0.11403501
0.039921343 -0.060342029 0.11882532
0.047964633 -0.060502157 0.11915302
0.058405399 -0.060799804 0.11529779
0.0697155 -0.060993638 0.11725169
0.1057438 -0.061850797 0.11204928
0.15242592 -0.063081086 0.099604785
0.15334335 -0.06327451 0.091292322
0.16015893 -0.063184045 0.10234994
0.15916714 -0.064945102 0.017423034
0.16845818 -0.065148622 0.016916215
0.19781598 -0.065791756 0.015314877
0.22377002 -0.066365361 0.013658702
0.24142559 -0.066866659 0.0072361231
-0.17204261 -0.061060213 0.012735903
-0.16246802 -0.061186552 0.015037537
-0.11410487 -0.0619669 0.020734727
-0.085655242 -0.062480338 0.021817327
-0.075765103 -0.062674284 0.021549344
-0.065998405 -0.062865794 0.021284699
-0.031206965 -0.063548036 0.020341814
-0.021986991 -0.063728847 0.020091772
0.042845488 -0.062771261 0.11129713
0.079493195 -0.063326716 0.11710989
0.089450002 -0.06350752 0.11744243
0.099250317 -0.063684642 0.11780465
0.14267817 -0.067034572 0.012428343
0.1779488 -0.067745879 0.010652006
0.1893165 -0.067975134 0.010079503
0.20886001 -0.068408914 0.0074416995
0.21940017 -0.068653733 0.0055658221
0.22796296 -0.068830058 0.0049826503
0.24292617 -0.069343522 -0.0046003461
-0.15170121 -0.064367749 0.010266185
-0.13406104 -0.064574391 0.013826787
-0.12637293 -0.064690426 0.014415026
-0.10381061 -0.065030977 0.016142011
-0.096452683 -0.065142035 0.016705275
-0.05695802 -0.065848023 0.015654564
-0.044389427 -0.066079326 0.015074611
0.14450599 -0.066702507 0.1121313
0.11563677 -0.069181114 0.0018742085
0.12286708 -0.069337338 0.00068134069
0.094932616 -0.071282551 -0.08920598
0.10498011 -0.071354121 -0.085467756
0.11386192 -0.071476728 -0.084363818
0.12497628 -0.071668521 -0.084404051
0.13030589 -0.071986839 -0.092814803
0.1389627 -0.07232365 -0.09979552
0.16074561 -0.072686046 -0.099374175
-0.12271374 -0.067947105 0.0011543036
-0.11363497 -0.068012536 0.0036236644
-0.10470027 -0.068076715 0.0060606003
-0.085031211 -0.068283521 0.0092392564
-0.07590282 -0.06846603 0.0078272223
-0.066855282 -0.068646923 0.0064276457
-0.054915726 -0.068885624 0.0045807362
-0.046052665 -0.069062829 0.0032098293
-0.037267059 -0.069238484 0.0018507838
-0.025658906 -0.069469914 7.6591969e-05
0.07028535 -0.067518219 0.11437213
0.10976422 -0.068085358 0.1156792
0.1192019 -0.068221241 0.11598128
0.12761101 -0.068394892 0.11449581
0.068985075 -0.073765308 -0.094755888
0.084343493 -0.073964179 -0.093521535
0.053376228 -0.069659814 0.10762751
0.057519257 -0.07655865 -0.099972844
0.046520442 -0.072018459 0.10091591
0.097510725 -0.072264731 0.11074346
0.12623686 -0.072726935 0.10728312
0.13324255 -0.072970808 0.10279143
0.044303894 -0.07927604 -0.10167617
0.16005579 -0.073273592 0.1031394
0.21752453 -0.077655092 6.6697598e-05
0.059636772 -0.074368447 0.10116982
0.069989324 -0.074294388 0.10571986
0.078018606 -0.074340209 0.10659713
0.087815613 -0.07444337 0.10645401
0.1604933 -0.083149895 -0.098529577
0.053918928 -0.084977418 -0.10039908
0.044280916 -0.078644335 0.10189503
0.041185349 -0.087735146 -0.10093182
0.051693857 -0.090155408 -0.091210783
0.057725042 -0.090188727 -0.091330588
0.16166709 -0.081625521 0.097355068
0.05409494 -0.083166838 0.1010536
0.06122008 -0.093614221 -0.1038636
0.15986112 -0.083325967 0.10370439
0.16021369 -0.093579888 -0.097781122
0.21921588 -0.088755563 0.00024735928
0.041027009 -0.087576091 0.1013844
0.045771271 -0.098453693 -0.090022743
0.045941055 -0.099198602 -0.10312837
0.053387761 -0.098642945 -0.093459666
0.063729882 -0.098472983 -0.090616286
0.053963721 -0.089279816 0.10961074
0.058986187 -0.09030439 0.092267752
0.06383577 -0.10481779 -0.1037553
0.16130662 -0.10423561 -0.10129327
0.2124216 -0.097566187 0.0013275743
0.22134674 -0.097500473 0.0017504692
0.046513021 -0.093636677 0.11035937
0.063334674 -0.093660116 0.10842377
0.059548169 -0.094380766 0.097824335
0.16060397 -0.093527064 0.10131472
0.048058867 -0.10964018 -0.090733528
0.060194999 -0.10954592 -0.090768218
0.055042744 -0.098125786 0.10764682
0.066292256 -0.10133149 0.092177927
0.065958291 -0.10255991 0.10480404
0.21197288 -0.10862061 0.0017255545
0.21836722 -0.10860244 0.00086259842
0.043534666 -0.10461976 0.11032951
0.16038361 -0.10354033 0.10182351
0.061459988 -0.10758191 0.097460985
0.054303646 -0.1087217 0.111184
