# .PCD v0.7 - Point Cloud Data file format
VERSION 0.7
FIELDS x y z
SIZE 4 4 4
TYPE F F F
COUNT 1 1 1
WIDTH 1100
HEIGHT 1
VIEWPOINT 0 0 0 1 0 0 0
POINTS 1100
DATA ascii
0.16461605 0.12180975 -0.35189158
0.15541571 0.12180795 -0.36887908
0.13707882 0.12179895 -0.37153941
0.14200902 0.12179859 -0.35454255
0.11651826 0.12178917 -0.37620133
0.12157655 0.12178732 -0.35009548
0.096637547 0.1217784 -0.3774066
-0.094537258 0.20752068 -0.33799657
0.16473627 0.10003234 -0.34120995
0.10064036 0.12177692 -0.35231397
-0.094581842 0.20757325 -0.31315047
0.084165335 0.12177031 -0.363132
0.076473951 0.12176798 -0.37674224
-0.094631016 0.20762841 -0.28773469
-0.094689071 0.2076693 -0.27480748
-0.092643142 0.19206052 -0.34094062
0.081995547 0.1211182 -0.34129792
0.13314241 0.10119458 -0.34124163
0.05640769 0.12176061 -0.38324338
-0.094807208 0.2077526 -0.24849701
-0.09261632 0.19245766 -0.31385443
-0.094928145 0.20783786 -0.22156052
-0.092591584 0.19232105 -0.28858343
0.052931786 0.12175356 -0.35928035
0.036355793 0.12175255 -0.38805211
0.059247732 0.12105314 -0.3413204
-0.095052063 0.20792525 -0.19397534
-0.092566252 0.19218136 -0.26273248
0.11232674 0.099115118 -0.34126186
0.027487159 0.12174179 -0.37189883
0.016359389 0.12174407 -0.39100832
-0.09527874 0.20805357 -0.16570599
-0.092540205 0.19203834 -0.23628138
-0.092640996 0.17238455 -0.32881841
-0.093715727 0.20686726 -0.15436496
-0.092527032 0.19196557 -0.2228242
0.034781933 0.12098309 -0.34134454
0.0023710132 0.12173866 -0.39307642
-0.092616796 0.172024 -0.3039788
0.14119482 0.080698341 -0.34122899
0.0067608953 0.12173253 -0.37444568
-0.093725443 0.20690508 -0.12520145
-0.09249717 0.1923831 -0.1927169
0.076083899 0.10178283 -0.34129852
0.16132659 0.071666643 -0.34120691
-0.09373039 0.20692436 -0.11035019
-0.092589319 0.17217462 -0.27606538
-0.018340528 0.12172902 -0.39408857
-0.092469513 0.19223805 -0.16460265
-0.092576683 0.17198981 -0.26311594
0.0083959699 0.12090757 -0.34137064
-0.012565613 0.12172224 -0.37266839
-0.093740344 0.20696358 -0.080091998
-0.09374547 0.20698355 -0.064678103
-0.092548311 0.17214276 -0.23416008
-0.092653453 0.15243493 -0.3313342
0.10868716 0.082138881 -0.34126163
-0.025175691 0.12171488 -0.36990577
-0.037543893 0.12171693 -0.39053965
-0.092451811 0.18739633 -0.14406836
0.050838172 0.099510267 -0.34132314
-0.09375602 0.20702438 -0.033262387
-0.092518985 0.1722997 -0.20445278
-0.092626929 0.15234078 -0.3042053
-0.020145595 0.1208259 -0.34139884
-0.092423141 0.18718748 -0.11479338
0.030477822 0.10173042 -0.34134388
-0.049300253 0.12170401 -0.37259889
-0.057901442 0.12170534 -0.38677892
-0.093782425 0.2070723 -0.0010326505
-0.092488945 0.17246078 -0.17396452
-0.09259963 0.15224423 -0.2763966
-0.093802989 0.20709942 0.015398324
-0.092393577 0.18697338 -0.084794715
-0.092584312 0.15244375 -0.26096043
0.086138785 0.079265878 -0.34128344
-0.07810539 0.12169854 -0.39385551
-0.051118016 0.12073727 -0.34142947
0.0063305497 0.10250197 -0.34136808
-0.093845069 0.20715494 0.048909515
-0.092360079 0.18734665 -0.050978914
-0.092556059 0.1523466 -0.23204938
-0.092668235 0.13221715 -0.33618701
0.1441673 0.056862369 -0.34122062
-0.093866587 0.20718323 0.065998226
-0.092457533 0.16727744 -0.13926926
-0.09265399 0.1322764 -0.32162058
0.065997839 0.079231739 -0.34130347
-0.097777545 0.12168486 -0.38497871
-0.10399824 0.12168638 -0.39501601
-0.038115203 0.10096841 -0.3963778
-0.092328906 0.18712889 -0.01936838
-0.092443287 0.16705184 -0.12471095
-0.092526972 0.15224697 -0.20238999
-0.019621134 0.10333122 -0.3413941
0.048868179 0.08232379 -0.34132117
-0.093911231 0.20724134 0.10086477
-0.09231317 0.18701796 -0.0032602847
-0.092624724 0.13239726 -0.29189384
0.11577249 0.059819654 -0.34124956
-0.093934655 0.20727123 0.11865202
-0.09241116 0.16714703 -0.092106491
-0.12352341 0.12167144 -0.38328499
-0.066728652 0.10217388 -0.39640659
-0.093958139 0.20730142 0.13668135
-0.092277229 0.18740438 0.032865822
-0.092393279 0.16747545 -0.073969722
-0.092597425 0.13205017 -0.26387462
-0.068723261 0.11048244 -0.34144443
-0.047586143 0.10422449 -0.34142202
0.026149571 0.082393989 -0.34134382
-0.14021528 0.121668 -0.39493257
-0.092260778 0.18729292 0.049651951
-0.092493474 0.14738034 -0.16586637
0.15639859 0.041999146 -0.34120506
-0.094006419 0.20736317 0.17348695
-0.092244029 0.18717997 0.066658318
-0.09236306 0.16701142 -0.043045029
-0.092479706 0.14703922 -0.1516784
-0.09256655 0.13217111 -0.23254929
-0.092683017 0.11223556 -0.34098318
0.082303703 0.06157966 -0.34128308
0.095775723 0.057686612 -0.34126881
-0.15788281 0.12165795 -0.39219597
-0.094030857 0.20739459 0.19227344
-0.092344284 0.16734536 -0.024164811
-0.092462718 0.14721172 -0.13448294
0.0017938614 0.082468435 -0.34136763
-0.099689364 0.1013871 -0.39643914
-0.094055951 0.20742659 0.21132305
-0.092209876 0.18694954 0.10134977
-0.09253484 0.13229546 -0.2003376
-0.092654526 0.11208601 -0.31189162
-0.17813843 0.12164785 -0.39208478
-0.094081163 0.20745896 0.23064113
-0.092188716 0.18746622 0.12257069
-0.092309296 0.16744868 0.011249781
-0.092431188 0.14703859 -0.10225292
-0.092518687 0.13235895 -0.18388753
-0.09263742 0.11244868 -0.2946102
-0.094117641 0.207496 0.25024045
-0.092171073 0.18735121 0.14055282
-0.092293262 0.16720991 0.027702332
-0.092413604 0.14721479 -0.084327638
-0.02438587 0.082548454 -0.34139332
0.12602806 0.041209355 -0.34123474
-0.20122653 0.12163748 -0.39479229
-0.13352776 0.10271816 -0.39647323
-0.055433393 0.081255302 -0.39638954
-0.094187021 0.20754628 0.27014214
-0.092153072 0.18723463 0.15877935
-0.092607617 0.11229882 -0.2642498
-0.067939878 0.091905788 -0.34143856
-0.094259679 0.20759808 0.29033428
-0.092134953 0.18711649 0.17725533
-0.092256665 0.16731341 0.064610958
-0.092380583 0.14703797 -0.050719306
-0.0925017 0.12714432 -0.16387704
-0.049750566 0.08442466 -0.34141871
0.055698097 0.056186825 -0.34130773
0.11042076 0.04153277 -0.34125012
-0.15268677 0.10231082 -0.39649212
-0.094333231 0.20765056 0.31082153
-0.092116594 0.18699674 0.19598585
-0.092239976 0.1670687 0.081762493
-0.092362165 0.14721791 -0.032016873
-0.09257704 0.11214478 -0.2330455
0.021810353 0.06296967 -0.34134275
-0.094407856 0.20770387 0.33161062
-0.092219293 0.16742007 0.10260305
-0.09234339 0.14740066 -0.013027757
-0.092468083 0.12719916 -0.1297093
-0.092683494 0.092281342 -0.33139062
0.035851419 0.057018861 -0.34132737
0.093930542 0.041874513 -0.34126633
-0.17276269 0.10188399 -0.39651203
-0.09202832 0.19482367 0.28121454
-0.092074752 0.18741377 0.23808312
-0.092201889 0.16717236 0.1202617
-0.092450798 0.12722716 -0.11224943
-0.092542827 0.11244445 -0.19829552
-0.092666805 0.092484057 -0.31447938
-0.089164615 0.077482224 -0.39642209
-0.092008412 0.19475429 0.3014341
-0.092184365 0.16692136 0.13815778
-0.092308581 0.14722125 0.022591293
-0.092433512 0.12725557 -0.094531387
-0.0027580857 0.062341556 -0.34136668
-0.19382268 0.10143621 -0.39653286
-0.091988206 0.19468392 0.32194543
-0.092098832 0.17731912 0.21927664
-0.092162728 0.16727917 0.1599156
-0.092288852 0.14740799 0.042428523
-0.092635214 0.092482015 -0.2823143
0.1484955 0.022124425 -0.34120899
-0.21339661 0.10336895 -0.3965528
-0.10619807 0.076545089 -0.39643878
-0.092144728 0.16702513 0.17835256
-0.092272639 0.14703666 0.059235513
-0.092397928 0.12731372 -0.058297902
-0.092526078 0.10712814 -0.17858802
-0.13615197 0.081280038 -0.39646983
0.19773674 0.12030293 0.34151536
-0.092060745 0.17693661 0.2581268
-0.092122495 0.16738926 0.20077699
-0.092252553 0.14722468 0.079651713
-0.092379689 0.12734343 -0.039770335
-0.092506826 0.10747093 -0.15913974
-0.092602789 0.092479959 -0.24918699
-0.070137143 0.071630463 -0.34143516
-0.02917105 0.061666295 -0.34139234
0.055880368 0.040979326 -0.34130335
-0.091975808 0.18679433 0.33883721
-0.092232049 0.14741571 0.10039508
-0.092361212 0.12737361 -0.020960495
-0.092490196 0.10735603 -0.14216748
-0.092587471 0.092265993 -0.23353806
0.1626507 0.017521031 -0.31522354
-0.073458374 0.060737923 -0.39640176
0.18031824 0.11928076 0.34149724
-0.092084885 0.16687126 0.23904759
-0.092215002 0.14703594 0.11797056
-0.092342496 0.12740426 -0.0018619001
-0.092473328 0.10723947 -0.12494829
0.17105025 0.017518774 -0.29206258
-0.17315882 0.081758007 -0.39650682
-0.087835848 0.061601207 -0.39641634
0.16209573 0.1208968 0.34147924
-0.092031837 0.17174415 0.29020065
-0.092193842 0.14722829 0.13933325
-0.092323303 0.12743536 0.017532051
-0.092553496 0.092260569 -0.19892555
0.18060648 0.017516643 -0.26723838
0.13140863 0.017511621 -0.33768082
-0.092012107 0.17150955 0.31048346
-0.092108786 0.15697108 0.22028148
-0.092172205 0.14742373 0.16104609
-0.092304051 0.12746699 0.037228405
-0.092435777 0.10747449 -0.086810738
0.1890077 0.017514527 -0.24407166
0.14633733 0.017509937 -0.30475008
0.1364159 0.017508894 -0.31885862
-0.19416416 0.0808198 -0.39652744
0.13971931 0.12057905 0.34145623
-0.091991901 0.17127149 0.33105892
-0.092056513 0.16161476 0.27064955
-0.092154205 0.14703514 0.17944419
-0.092284322 0.12749906 0.057234168
-0.092418134 0.10735606 -0.068772227
0.19741356 0.0175125 -0.22089066
-0.22550237 0.086345822 -0.38783947
-0.21368468 0.082281396 -0.39654729
-0.12037498 0.061213121 -0.39644861
-0.092132151 0.14723195 0.20182064
-0.092400193 0.1072358 -0.05046311
0.20694959 0.017510623 -0.19611803
0.17218643 0.017506249 -0.24485727
0.15644097 0.017504439 -0.26693189
0.11709869 0.017500088 -0.32208741
0.1051755 0.017498776 -0.33880308
0.19758701 0.10239972 0.34151405
0.11952239 0.11948378 0.34143519
-0.092247665 0.12702566 0.094774634
-0.092381954 0.10711375 -0.031877249
0.21535775 0.017508596 -0.17293113
0.13903856 0.017499097 -0.27914739
0.12745523 0.0174978 -0.29526752
-0.1387729 0.059869096 -0.39646643
0.10190344 0.12045489 0.34141773
-0.092090845 0.1470343 0.24385267
-0.092227161 0.12705494 0.11569679
-0.092360258 0.10747826 -0.0098755956
0.22377113 0.017506585 -0.14972989
0.1918599 0.017502338 -0.19381014
0.18239975 0.017501071 -0.20687772
0.15179032 0.017497227 -0.24915819
0.101987 0.017491356 -0.31794849
0.086770952 0.01748959 -0.33896536
0.18022197 0.10097678 0.34149712
-0.092042267 0.15090363 0.29104394
-0.09220624 0.1270847 0.13695785
-0.092341483 0.10735606 0.0093328953
0.19700903 0.017499775 -0.17473751
0.16198307 0.017495081 -0.22274832
0.12071717 0.017489955 -0.27930963
0.10721385 0.017488346 -0.29781759
-0.17355257 0.061751693 -0.39650166
0.16205966 0.10215481 0.34147877
0.079783261 0.11930467 0.3413946
-0.091991842 0.15491186 0.33992964
-0.092022419 0.1505207 0.311279
-0.09218502 0.12711494 0.15856612
-0.09232229 0.10723193 0.028838873
0.22494566 0.017260507 -0.12615466
0.13128757 0.017487742 -0.25196028
0.081695259 0.01748158 -0.31939882
0.067179501 0.0174798 -0.33913809
-0.10333097 0.044254884 -0.39642695
0.0604316 0.1203187 0.34137523
-0.092066765 0.14097442 0.27153689
-0.092163384 0.12714566 0.18053013
-0.092302978 0.1071059 0.048649341
0.22495869 0.017425075 -0.11300246
0.20389748 0.01749412 -0.14094082
0.17246425 0.017489657 -0.18334435
0.16243482 0.017488226 -0.19687426
0.14184165 0.017485522 -0.22465302
0.1011948 0.017480239 -0.27948254
0.087017775 0.017478444 -0.2986061
-0.22551721 0.067161351 -0.39343119
-0.19450343 0.060328946 -0.39652202
0.1397596 0.10131545 0.34145671
0.040202141 0.12137876 0.34135503
-0.092141628 0.12717696 0.20285887
-0.092279673 0.10748227 0.072119951
0.11212677 0.017477967 -0.25123739
0.061525404 0.017471328 -0.3189311
0.046282589 0.017469369 -0.33932233
-0.22549933 0.066951469 -0.37465811
-0.2139709 0.061325192 -0.39654174
-0.092119157 0.12720869 0.22556126
-0.092259645 0.10735606 0.0926162
0.22498348 0.017473072 -0.087923646
0.17686063 0.017483294 -0.15164532
0.1216656 0.017475493 -0.22486216
0.081821382 0.017470069 -0.27771467
0.066943884 0.017468058 -0.29744923
-0.12294561 0.040304929 -0.39644533
0.11963469 0.099755391 0.34143716
0.019111514 0.11931907 0.34133261
-0.092042208 0.13480256 0.29973251
-0.092096508 0.127241 0.24864703
-0.092239201 0.10722779 0.11344054
0.15004629 0.017475642 -0.17370063
0.13529795 0.017473578 -0.19309437
0.091668665 0.017467499 -0.25046563
0.050974905 0.017461851 -0.3039766
0.041564167 0.01746057 -0.31635118
0.027184427 0.01745864 -0.33525974
-0.15401512 0.043677375 -0.39647716
0.19741035 0.082083419 0.34152049
0.10208279 0.10030709 0.34141952
0.0014859438 0.11953835 0.34131485
-0.092022538 0.13430427 0.3200466
-0.092218578 0.10709746 0.13460088
0.22500697 0.017228343 -0.063993961
0.17244619 0.017475381 -0.13076249
0.15681964 0.017472968 -0.15112928
0.1242587 0.017468177 -0.19356614
0.1015231 0.017464951 -0.22319674
0.074893773 0.017461151 -0.25790203
0.059592605 0.017458968 -0.27784362
0.02457422 0.017454043 -0.32348162
0.080011189 0.10158919 0.34139723
-0.021525681 0.12065057 0.34129173
-0.092066705 0.12499961 0.28013706
-0.092193782 0.10748659 0.15969238
0.12838399 0.017464869 -0.17395571
0.081953049 0.017458096 -0.23391545
0.043092787 0.017452426 -0.28409863
0.031772494 0.01745078 -0.29871726
0.0017231107 0.017446496 -0.33752155
-0.17394394 0.041863993 -0.39649644
0.17715144 0.080753073 0.34150046
0.060728252 0.10220832 0.34137779
-0.040728807 0.12090568 0.34127218
-0.092172325 0.10735606 0.18161047
0.2250334 0.017274514 -0.03722845
0.22492287 0.0022562295 -0.14145288
0.15181851 0.017464563 -0.12949738
0.136733 0.017462142 -0.14879715
0.096520901 0.017456137 -0.20023945
0.05189836 0.017449483 -0.25732374
0.0039111972 0.017442346 -0.31871232
-0.19243091 0.042429179 -0.39651504
0.15579128 0.082018241 0.34147853
-0.060700417 0.12117103 0.34125191
-0.092005968 0.12678608 0.34089345
-0.09215039 0.10722335 0.20389152
0.22504804 0.0174492 -0.022436649
0.10952985 0.017453969 -0.16863728
0.081021667 0.017449632 -0.20475595
0.062317073 0.017446771 -0.22845402
0.034834743 0.017442584 -0.26327303
0.021483541 0.01744055 -0.28018847
0.0061292052 0.017438203 -0.29964182
-0.020281792 0.017434239 -0.33310315
-0.22551727 0.047453597 -0.38295829
0.040634692 0.099780485 0.34135848
-0.092128217 0.10708845 0.22654462
0.12967956 0.017452955 -0.12813964
0.091300845 0.017446965 -0.1762833
0.061658561 0.017442338 -0.21346773
0.03723079 0.017438523 -0.24411078
0.0048984885 0.017433479 -0.28466955
-0.010990441 0.017431006 -0.30460119
-0.038339853 0.017426789 -0.33890888
-0.22549921 0.047093198 -0.36408481
-0.21425527 0.040499091 -0.3965362
0.13652349 0.080036074 0.34145969
0.019561529 0.10038607 0.34133726
-0.092052162 0.11409655 0.30054903
-0.092101634 0.10749117 0.25343043
0.22507364 0.01719337 0.0036141276
0.11207682 0.017445952 -0.13476515
0.097036898 0.017443553 -0.15344003
0.072181344 0.017439596 -0.18430291
0.041325927 0.017434679 -0.22261564
0.012400925 0.01743006 -0.25853163
-0.028873563 0.017423481 -0.30978173
-0.13758975 0.024188504 -0.39645538
0.11629969 0.080756113 0.34143925
0.0020057559 0.10025032 0.3413198
0.2250891 0.017371848 0.019191206
0.22493714 -0.0025867224 -0.12451617
0.1163637 0.017442338 -0.11376737
0.079559982 0.01743634 -0.15898886
0.016469896 0.017426051 -0.23650867
-0.030512929 0.017418392 -0.29423732
-0.045655668 0.017415926 -0.3128435
-0.059185922 0.017413728 -0.32946834
-0.11180812 0.017085083 -0.39642781
0.0950436 0.081512928 0.34141785
-0.020910859 0.10089345 0.34129685
-0.081047118 0.11094458 0.34123403
-0.092076123 0.10449135 0.28099757
0.091690063 0.017433837 -0.12780327
0.051324844 0.017427117 -0.17686775
0.036138654 0.017424583 -0.19532676
0.02233243 0.017422289 -0.2121083
0.0010594726 0.017418742 -0.23796596
-0.019060433 0.017415382 -0.26242208
-0.07717663 0.017405711 -0.33306298
-0.15666407 0.021967128 -0.39647377
0.19723505 0.061916545 0.34152699
0.084020853 0.080451682 0.34140724
-0.040032387 0.10076164 0.34127778
-0.09203583 0.10652557 0.32107055
0.22511846 0.01742319 0.048951149
0.22496322 -0.0026120842 -0.098058984
0.09601593 0.017430022 -0.10602807
0.072060406 0.017425932 -0.13482437
0.057233334 0.017423414 -0.1526475
-0.018741846 0.017410472 -0.24397512
-0.035811007 0.017407559 -0.26449347
-0.051351845 0.017404914 -0.28317463
-0.069265127 0.017401859 -0.30470771
0.064985573 0.080602393 0.34138823
-0.059916079 0.10062455 0.34125799
0.2249766 -0.0026251078 -0.084471241
0.084490418 0.017423391 -0.10290679
0.037692964 0.017415255 -0.1585201
0.016538024 0.017411567 -0.18366025
0.0020440817 0.017409049 -0.20088461
-0.012774587 0.017406464 -0.21849491
-0.22546554 0.037221447 -0.32437217
-0.19277263 0.022226155 -0.39650974
0.17704785 0.060058251 0.3415072
0.036864579 0.082051471 0.34135979
0.22514641 0.01715517 0.077418566
0.06082195 0.017414436 -0.11341609
0.041976929 0.01741109 -0.13554841
0.018968165 0.017407 -0.16257095
-0.03350538 0.017397657 -0.22419824
-0.049281478 0.017394856 -0.24272636
-0.067473471 0.017391615 -0.26409185
-0.079871476 0.017389417 -0.27865258
-0.2254433 0.037146911 -0.30182377
-0.22551978 0.027350783 -0.3750968
0.15576768 0.060746446 0.34148556
0.02429688 0.080924541 0.34134752
0.22500414 -0.0026518703 -0.056544229
0.061808288 0.017409697 -0.0943266
0.041060865 0.017405912 -0.11839887
0.023243189 0.017402679 -0.13907161
-0.0025488138 0.017398 -0.16899677
-0.017751336 0.017395228 -0.18663543
-0.049225867 0.017389514 -0.22315349
-0.22541755 0.037448958 -0.27601251
-0.22549886 0.027191371 -0.3534883
-0.21453792 0.019801915 -0.39653072
0.13656932 0.060979769 0.34146613
-0.0065152645 0.082453012 0.3413164
0.225178 0.01720427 0.10936829
0.22501829 -0.0026656315 -0.042190999
0.041900098 0.017400973 -0.098870158
0.020283759 0.017396957 -0.1236378
0.0035872459 0.017393857 -0.14276831
-0.019351065 0.017389596 -0.16905063
-0.03708446 0.017386295 -0.18936928
-0.071890295 0.017379843 -0.22924909
-0.22539443 0.037375048 -0.25258288
0.1164189 0.061224639 0.34144562
-0.025019348 0.081969559 0.34129804
0.22519559 0.017394707 0.1270749
0.020959079 0.017391823 -0.10364942
0.0041202307 0.017388627 -0.12269488
-0.019020021 0.017384231 -0.14886755
-0.040955961 0.017380066 -0.17367807
-0.059443414 0.01737655 -0.19458823
-0.076302111 0.017373368 -0.21365613
-0.08921808 0.017370902 -0.22826466
-0.22537082 0.037299752 -0.22872078
-0.12601298 0.00091600418 -0.39643741
0.095243633 0.061481997 0.34142417
0.22504738 -0.0026939139 -0.012668163
0.22492522 -0.017619856 -0.12880541
0.02350682 0.017386936 -0.08122471
-0.018682718 0.017378762 -0.12830928
-0.036741257 0.017375261 -0.14846298
-0.059483051 0.017370835 -0.17384344
-0.076505661 0.017367542 -0.19284105
-0.22534686 0.037223101 -0.20441425
0.084264338 0.060172066 0.34141356
0.22522622 0.017113328 0.15831211
0.0032843947 0.017377466 -0.083563849
-0.010394633 0.017374754 -0.098620594
-0.038620353 0.017369166 -0.12968908
-0.059523404 0.017365023 -0.15269749
-0.22532243 0.037144974 -0.17965071
-0.1593098 0.00028479099 -0.39647037
0.19706094 0.041897401 0.34153342
0.057469547 0.060948953 0.34138626
0.22524485 0.01730828 0.17705053
0.22507769 -0.0027233064 0.017995775
-0.028147042 0.017365441 -0.097047061
-0.061711073 0.017358638 -0.13346772
-0.083547652 0.017354228 -0.15716276
-0.22529745 0.037065357 -0.15441716
-0.22546202 0.017368898 -0.31081116
-0.22554499 0.0072533488 -0.39112905
-0.20983779 0.0044275895 -0.39652175
0.17695785 0.042077973 0.34151304
-0.019670427 0.017361276 -0.066454917
-0.048868835 0.017355226 -0.097673774
-0.07714057 0.017349377 -0.12790188
-0.22526872 0.037384287 -0.12549064
-0.22543675 0.017467827 -0.28526449
-0.22552222 0.0072496682 -0.36723587
-0.17933768 -0.0025538281 -0.39648953
0.16497582 0.041071489 0.3415013
0.22528028 0.017363407 0.21293533
0.2251091 -0.0027538687 0.049868315
0.2249395 -0.022684038 -0.11168212
-0.036014378 0.017351836 -0.06184572
-0.048805237 0.017349131 -0.075314075
-0.070666194 0.017344512 -0.098332956
-0.22524267 0.037305355 -0.099211872
-0.22541386 0.017212957 -0.26207745
-0.22549862 0.0072458982 -0.34286857
0.13661486 0.042055428 0.34147233
0.22529703 0.017216712 0.22999066
0.22512528 -0.0027695894 0.066280365
-0.059693158 0.017340548 -0.063859716
-0.077585459 0.017336674 -0.08240366
-0.22521633 0.037224889 -0.072419137
-0.22538757 0.017312229 -0.23552635
0.22531408 0.017067239 0.24736756
0.22496974 -0.022604249 -0.081039295
-0.077814758 0.01733011 -0.058952123
-0.22518939 0.037142828 -0.045097083
-0.22536081 0.017413579 -0.20841911
-0.22555453 -0.0051013604 -0.39479971
0.22533458 0.017271638 0.26805985
0.22516125 -0.0025081784 0.10256276
-0.08736372 0.017321333 -0.044348836
-0.22516173 0.037059113 -0.017229944
-0.22533649 0.017150424 -0.18380569
-0.14278197 -0.018171862 -0.39644876
0.22535238 0.017119557 0.28616709
0.22517839 -0.00252188 0.12004715
0.22500134 -0.022521086 -0.049098626
-0.2253086 0.017252095 -0.15559965
-0.15973157 -0.018884048 -0.39646545
0.2253738 0.017328866 0.30774152
0.225196 -0.0025358796 0.13789442
0.2250154 -0.022719629 -0.034680128
-0.22527993 0.017355941 -0.12678444
-0.22545856 -0.0025739223 -0.29718855
-0.17740208 -0.019626528 -0.39648283
0.225214 -0.0025501773 0.15611613
-0.22525084 0.017462082 -0.097339928
-0.22543323 -0.0026779547 -0.27144432
-0.22552198 -0.012542993 -0.35672399
0.22504896 -0.022636376 -0.00072577596
-0.22515273 0.025025174 -0.0020827353
-0.22522444 0.017188117 -0.070588157
-0.22540724 -0.0027841479 -0.24517006
-0.22549832 -0.012743354 -0.33222553
-0.19824225 -0.022998765 -0.39650261
0.22525114 -0.0025797039 0.19373083
0.22506633 -0.022593394 0.016813755
-0.2251941 0.017294593 -0.039898396
-0.2253775 -0.0025558174 -0.21537215
0.22527027 -0.002594918 0.21314925
-0.22517395 0.016235568 -0.018958628
-0.22535056 -0.0026630312 -0.18792294
0.22528988 -0.0026105046 0.23299283
0.22510216 -0.022504471 0.053080976
-0.22532278 -0.0027725995 -0.1598898
-0.15794599 -0.035432696 -0.39645907
0.22530991 -0.0026264042 0.25327575
0.22511828 -0.022716135 0.069478512
0.22492903 -0.04254761 -0.111956
-0.22521949 0.0049772412 -0.059328422
-0.22529131 -0.0025364161 -0.12806949
-0.22548288 -0.022605881 -0.31168154
-0.19141245 -0.035045505 -0.39649245
0.22533041 -0.0026426762 0.27401274
0.22513717 -0.022672139 0.088610739
0.22494584 -0.042507008 -0.094989955
-0.22518891 0.0049474984 -0.02844052
-0.22526234 -0.0026471168 -0.098739997
-0.22545516 -0.02260761 -0.28350377
-0.22555012 -0.032552794 -0.37556019
0.2253513 -0.0026593432 0.29521918
0.22515658 -0.02262713 0.1081894
-0.2251541 0.0052931458 0.0066676736
-0.22524315 -0.0038239211 -0.078727961
-0.2254265 -0.02260939 -0.25468361
-0.22552454 -0.032663465 -0.34885567
0.22517633 -0.022581019 0.12823045
0.22497851 -0.042631891 -0.061836123
-0.22539747 -0.022611164 -0.22519878
-0.22550631 -0.033635773 -0.32970354
0.22519666 -0.022533841 0.14875033
0.22499648 -0.04259089 -0.043686971
-0.22517878 -0.0037194788 -0.013751805
-0.22536761 -0.022613019 -0.19502597
0.22521469 -0.02275826 0.16711718
-0.22533697 -0.022614881 -0.16414092
-0.22535616 -0.024511412 -0.182561
0.22523591 -0.022712171 0.18858129
0.22503364 -0.042505853 -0.0060563087
-0.2253058 -0.022616819 -0.13251795
0.22525764 -0.022664905 0.21057647
0.22505069 -0.042680737 0.011277616
-0.22527379 -0.022618771 -0.1001305
-0.22547954 -0.042506255 -0.29815155
-0.20825964 -0.053586327 -0.39650404
0.22527999 -0.022616491 0.23312265
0.22507039 -0.042638354 0.031225502
-0.22515529 -0.014451876 0.015423864
-0.22524089 -0.022620797 -0.066950321
-0.22545159 -0.042732812 -0.26975656
-0.22555524 -0.052712254 -0.37038708
-0.22557324 -0.054508336 -0.38849792
-0.19411922 -0.05738008 -0.39648893
0.22530282 -0.02256681 0.2562409
0.22509062 -0.042594865 0.051679343
-0.22520727 -0.022622854 -0.032948136
-0.22522849 -0.024612583 -0.053270847
-0.22541994 -0.042679898 -0.2378059
-0.22552437 -0.052520238 -0.33831277
0.22532621 -0.022515886 0.27995318
0.22511134 -0.042550296 0.072658658
-0.22517276 -0.022624999 0.0019071698
-0.22538751 -0.042625688 -0.20503861
-0.22550583 -0.05364541 -0.31905901
0.2253471 -0.022757262 0.30120468
0.2251327 -0.042504564 0.094183922
0.22491485 -0.062543258 -0.11589175
-0.22535431 -0.042570051 -0.17142294
-0.22537327 -0.044312097 -0.1896857
0.2251519 -0.042690679 0.11380064
0.22493324 -0.062555604 -0.097235978
-0.22532016 -0.042512931 -0.13692568
0.22517431 -0.042645663 0.13641605
0.22495216 -0.062568292 -0.07809712
-0.22528839 -0.04275433 -0.10474159
-0.22530824 -0.044538774 -0.12395526
0.22519726 -0.04259941 0.15964299
0.22497153 -0.062581286 -0.058456138
-0.22516036 -0.034534901 0.020638555
-0.22525251 -0.042698205 -0.06846264
-0.22547895 -0.062752433 -0.2873514
-0.22558731 -0.072519727 -0.39395896
-0.20855409 -0.073539481 -0.39649883
0.22522086 -0.042551912 0.18350658
0.22499144 -0.062594652 -0.038293034
-0.22521549 -0.042640626 -0.031194478
-0.22523314 -0.044170536 -0.048125118
-0.22544521 -0.062691443 -0.25308365
-0.22546571 -0.0644897 -0.27298385
-0.22555774 -0.072588988 -0.3626129
0.22524512 -0.042503066 0.20803338
0.22501191 -0.062608354 -0.017586723
-0.22518855 -0.043514557 -0.0033680797
-0.22541028 -0.062628724 -0.21786591
-0.22552663 -0.072660059 -0.33043692
0.22526711 -0.042701982 0.23041612
0.22503287 -0.062622443 0.0036851168
-0.2253744 -0.062564276 -0.18165809
-0.22539312 -0.064151406 -0.19972262
-0.22551095 -0.074178606 -0.31385031
0.22529268 -0.04265397 0.25627202
0.22505444 -0.062636912 0.025545895
-0.22525108 -0.055240214 -0.060618967
-0.22534072 -0.062767923 -0.14753512
0.22531897 -0.042604584 0.28287667
0.22507665 -0.062651798 0.048020452
-0.22521049 -0.055061311 -0.019778162
-0.22530305 -0.062703699 -0.10931005
-0.22532266 -0.064333394 -0.12840202
-0.20400327 -0.087858982 -0.39649028
0.22534287 -0.042813245 0.30717784
0.22509947 -0.062667124 0.071134955
-0.22516149 -0.054280445 0.029393673
-0.22527421 -0.063467652 -0.079832837
0.22512293 -0.062682867 0.094917238
-0.22523427 -0.063412093 -0.039616883
-0.22537947 -0.075073831 -0.18034975
-0.22547275 -0.082577839 -0.27090731
-0.22549003 -0.08396855 -0.28769016
-0.22559494 -0.092561223 -0.39138535
0.22514716 -0.062699094 0.11939651
-0.22518611 -0.06278529 0.0087878406
-0.22543555 -0.082552008 -0.23339584
-0.22545636 -0.084196799 -0.25354812
-0.22556293 -0.09267804 -0.35746092
0.22517467 -0.062510267 0.14716092
0.22491708 -0.08262971 -0.10316162
-0.22540653 -0.083244331 -0.20369448
-0.22552621 -0.092581242 -0.31986287
-0.22554553 -0.094089456 -0.33862779
0.22520036 -0.062524393 0.17320871
0.2249395 -0.082598396 -0.080472931
-0.22536111 -0.082741849 -0.15799734
0.22522688 -0.062538937 0.20005631
0.22496259 -0.08256606 -0.057069391
-0.22532052 -0.082717344 -0.11701789
-0.22548318 -0.095033497 -0.27514336
0.22525436 -0.062553957 0.22774112
0.22498649 -0.082532726 -0.032916844
-0.2251628 -0.074038967 0.038154602
-0.22527874 -0.082692109 -0.074740693
-0.22529888 -0.084189519 -0.094277173
0.22528267 -0.062569439 0.25630289
0.22500896 -0.082656622 -0.010078549
-0.22523576 -0.082666002 -0.031103134
-0.22525293 -0.083935536 -0.047938794
-0.22550827 -0.10269032 -0.29665092
0.22531191 -0.062585443 0.28578418
0.22503436 -0.082623735 0.015613228
-0.22519106 -0.082639113 0.013961434
-0.22521955 -0.084695756 -0.013767689
-0.22534704 -0.093918927 -0.13812144
-0.22546637 -0.1025395 -0.25435019
-0.22560245 -0.11251321 -0.38882318
0.2253325 -0.063276142 0.3069858
0.22506058 -0.082589723 0.042167604
-0.22542602 -0.10259806 -0.21352416
-0.225438 -0.10345157 -0.225227
-0.22556549 -0.11252931 -0.34969652
-0.22558337 -0.11386021 -0.36794528
0.22508767 -0.082554542 0.069628686
-0.22538435 -0.10265851 -0.17135727
-0.22540289 -0.10395616 -0.18945688
-0.22553676 -0.11332153 -0.32008436
0.22511593 -0.08251816 0.098043621
0.22514263 -0.082652576 0.1249769
-0.225164 -0.093810506 0.046921343
-0.22518587 -0.095286109 0.025605619
-0.2252934 -0.10256025 -0.079472423
-0.22531337 -0.10390402 -0.098883823
-0.22533292 -0.10522811 -0.11801064
0.22517282 -0.082616724 0.15536374
0.22515196 -0.083999708 0.13502371
-0.22524726 -0.1026233 -0.032746285
-0.22526783 -0.10398969 -0.052841932
0.22520405 -0.082579501 0.18686247
-0.22521019 -0.10338607 0.0051764548
-0.22522074 -0.10407826 -0.005191803
-0.22536427 -0.11344858 -0.14554654
-0.22550505 -0.12263709 -0.28317779
0.22523645 -0.082540929 0.21953541
0.2249231 -0.10260186 -0.086591944
-0.22546005 -0.12263879 -0.23767886
-0.22548038 -0.1239468 -0.25763875
-0.2256124 -0.13254249 -0.38880885
0.22526997 -0.08250086 0.25344926
0.22495171 -0.10250556 -0.057655871
-0.22529536 -0.11521509 -0.075008139
-0.22541332 -0.12264053 -0.19048542
-0.2254315 -0.12378369 -0.20826361
-0.22557068 -0.1325482 -0.34456566
-0.22558087 -0.13322163 -0.355039
0.22530174 -0.082647778 0.28568769
0.22528073 -0.083950013 0.26504141
0.22497952 -0.10253388 -0.029594585
-0.22524583 -0.11528352 -0.024830565
-0.22539306 -0.12438316 -0.16910005
-0.22552532 -0.13255411 -0.29864556
-0.22554475 -0.13375078 -0.31761822
0.22532219 -0.083560117 0.30679554
0.2250084 -0.10256325 -0.00046497583
-0.22516894 -0.11381704 0.052105576
-0.22519082 -0.11513658 0.030770332
-0.22532445 -0.12324 -0.10025333
-0.22535342 -0.1250011 -0.12872855
0.22503844 -0.10259375 0.0297952
-0.22526228 -0.12264623 -0.037734717
-0.22528267 -0.1238565 -0.057699248
0.22506961 -0.10262549 0.061253071
-0.22521847 -0.12326786 0.0068489909
-0.2253781 -0.13257319 -0.14981532
0.22510457 -0.10251983 0.096364349
0.22508535 -0.10361764 0.077493012
-0.22549874 -0.14251089 -0.26684812
0.22513837 -0.1025514 0.13054168
-0.22544771 -0.14254561 -0.21507025
-0.22546828 -0.14369935 -0.23532882
-0.21649873 -0.15066275 -0.36480835
-0.19707888 -0.15064779 -0.37994146
0.22517359 -0.10258427 0.16615939
0.22515279 -0.103727 0.14565456
-0.22526091 -0.13526788 -0.02986151
-0.22540355 -0.14308891 -0.17019996
-0.22542191 -0.14409234 -0.18820545
-0.21562719 -0.1506747 -0.31492335
-0.19859236 -0.15066049 -0.32945362
-0.18239373 -0.15064703 -0.34327221
-0.1644972 -0.15063362 -0.35856491
-0.14062464 -0.15061772 -0.37900031
0.22521037 -0.10261857 0.20331043
-0.22517031 -0.13358906 0.060871303
-0.22519916 -0.13514112 0.032397956
-0.22533858 -0.14261952 -0.10479617
-0.21473038 -0.15068769 -0.26299235
-0.19737798 -0.15067287 -0.27914345
-0.17557865 -0.15065423 -0.29943356
-0.15520644 -0.15063864 -0.31842864
-0.13842821 -0.15062629 -0.33408198
-0.12255281 -0.15061545 -0.34890881
-0.097205818 -0.15059817 -0.37258151
0.22525159 -0.10250327 0.24493116
0.22522318 -0.10399265 0.21698302
-0.22528052 -0.14265892 -0.046002984
-0.2253105 -0.14423467 -0.075571537
-0.20779741 -0.15069596 -0.21495628
-0.19325638 -0.15068325 -0.22967234
-0.17662448 -0.15066895 -0.24651033
-0.16082579 -0.150656 -0.26251549
-0.14096004 -0.15064093 -0.28266466
-0.12458557 -0.15062839 -0.29926977
-0.10692757 -0.15061484 -0.31717646
-0.092340112 -0.15060446 -0.33198485
-0.076561451 -0.15059343 -0.34800592
0.22529182 -0.10253736 0.28559196
0.22527093 -0.10360786 0.26503474
-0.22522336 -0.14288095 0.011976689
-0.22524422 -0.14395595 -0.0086672902
-0.21592206 -0.15071818 -0.14906202
-0.19773412 -0.15070182 -0.16901459
-0.1833061 -0.15068886 -0.18484253
-0.16681159 -0.15067449 -0.20294596
-0.14863282 -0.15066034 -0.22293043
-0.13386708 -0.15064883 -0.23916291
-0.11077881 -0.15063068 -0.26454097
-0.093556225 -0.15061708 -0.28347057
-0.079313934 -0.15060583 -0.29912454
-0.0620507 -0.15059283 -0.31811082
-0.04586345 -0.15058121 -0.33592498
-0.032291651 -0.1505715 -0.35086077
0.22531202 -0.10366747 0.30660689
0.22493559 -0.12251808 -0.064053714
0.22491619 -0.12348754 -0.083116353
-0.21496826 -0.15073305 -0.089821696
-0.19943887 -0.15071875 -0.10823943
-0.18173862 -0.15070352 -0.12925325
-0.16493309 -0.15068762 -0.14917599
-0.14902401 -0.15067485 -0.16808157
-0.12661821 -0.15065688 -0.19470759
-0.11029518 -0.1506438 -0.21410471
-0.092711151 -0.15062949 -0.23499672
-0.076175034 -0.15061603 -0.2546438
-0.062493443 -0.15060492 -0.27089909
-0.047684789 -0.15059286 -0.28849363
-0.026989937 -0.15057699 -0.31310046
-0.010993063 -0.15056521 -0.33213097
0.0025351644 -0.15055525 -0.34822446
0.22497109 -0.12251608 -0.028321639
-0.20754284 -0.1507425 -0.036144316
-0.19199735 -0.15072805 -0.056035727
-0.17719907 -0.15071654 -0.07501632
-0.1629765 -0.15070122 -0.093172237
-0.14943439 -0.15069002 -0.11052826
-0.13393873 -0.15067723 -0.1303882
-0.11920857 -0.15066506 -0.14926684
-0.10291761 -0.15065163 -0.17014594
-0.087512851 -0.15063879 -0.18988718
-0.072924316 -0.15062657 -0.20858105
-0.05337739 -0.15061021 -0.23362854
-0.03696698 -0.15059645 -0.25465685
-0.021568716 -0.15058354 -0.27438819
-0.0070958734 -0.15057167 -0.29293898
0.0079881549 -0.15056029 -0.31229234
0.017982483 -0.1505527 -0.32511562
0.22500834 -0.12251403 0.0091696978
0.2249912 -0.12332955 -0.0076703131
-0.20963085 -0.15076166 0.032283545
-0.19362748 -0.15074705 0.010226965
-0.17839962 -0.15073481 -0.010794833
-0.16662401 -0.15072033 -0.026947081
-0.15259641 -0.15070836 -0.046298295
-0.13140893 -0.15069032 -0.075526536
-0.11163294 -0.15067348 -0.10280755
-0.095379233 -0.15065965 -0.12522984
-0.082162678 -0.15064839 -0.14346203
-0.073692918 -0.15064108 -0.15514439
-0.055566311 -0.15062545 -0.18014574
-0.042293608 -0.15061396 -0.19845213
-0.027934253 -0.15060157 -0.21825747
-0.012726367 -0.15058844 -0.2392329
0.0015662313 -0.15057608 -0.25894618
0.017907083 -0.15056208 -0.28148639
0.030424654 -0.15055235 -0.29877362
0.043530643 -0.15054215 -0.31687355
0.055864334 -0.15053257 -0.33390695
0.22504729 -0.12251184 0.048553646
0.22502935 -0.12334774 0.030849338
-0.17661822 -0.15075146 0.052399218
-0.16169113 -0.15073282 0.030390173
-0.14754051 -0.15072039 0.0094146729
-0.13401753 -0.1507085 -0.010630578
-0.12108129 -0.15069717 -0.029806092
-0.10869431 -0.15068628 -0.048167244
-0.094507158 -0.15067381 -0.069196954
-0.081007957 -0.15066196 -0.089206934
-0.068147659 -0.15065065 -0.10826966
-0.051916182 -0.15063621 -0.13232613
-0.04226613 -0.15062764 -0.14662793
-0.024013162 -0.15061137 -0.17367947
-0.010334969 -0.15059921 -0.19395114
0.0025948882 -0.15058768 -0.21311374
0.016320705 -0.15057543 -0.23345591
0.029250622 -0.15056393 -0.25261855
0.042764544 -0.15055194 -0.27264798
0.056671321 -0.15054084 -0.29328522
0.067381561 -0.15053228 -0.3091791
0.07972753 -0.15052241 -0.32750022
0.2250883 -0.12250958 0.089977115
0.2250694 -0.12336688 0.071340799
-0.12079537 -0.15071335 0.032803655
-0.10318601 -0.15069738 0.0047977567
-0.084320068 -0.15068027 -0.02520673
-0.066672385 -0.15066427 -0.053273767
-0.054166734 -0.15065296 -0.073162839
-0.042237163 -0.15064204 -0.092133522
-0.030845463 -0.15063155 -0.11024781
-0.019956887 -0.15062155 -0.12756218
-0.0061651468 -0.15060887 -0.14949268
0.005271256 -0.15059835 -0.16767806
0.017676294 -0.15058693 -0.18740368
0.033673227 -0.15057224 -0.21284093
0.047248781 -0.15055977 -0.23442774
0.057505369 -0.15055034 -0.25073701
0.068450987 -0.15054053 -0.26814756
0.081038475 -0.15053017 -0.28818989
0.093883157 -0.15051961 -0.30864173
0.10589021 -0.15050974 -0.3277598
0.22513145 -0.12250716 0.13360277
0.2251043 -0.12371161 0.10671264
-0.071745336 -0.15068473 0.015586019
-0.065127671 -0.15067852 0.0043079555
-0.05445534 -0.15066855 -0.013880283
-0.042205215 -0.15065706 -0.034757584
-0.030521512 -0.15064608 -0.054668173
-0.019365251 -0.15063548 -0.073677823
-0.0069715381 -0.15062371 -0.094795972
0.0048002601 -0.15061255 -0.11485462
0.015996039 -0.15060191 -0.13393161
0.028138459 -0.15059039 -0.15462169
0.039637744 -0.15057945 -0.17421584
0.050543606 -0.15056911 -0.19279893
0.062158942 -0.15055808 -0.21259089
0.07431978 -0.15054652 -0.23331219
0.085763156 -0.15053567 -0.25281125
0.097583055 -0.15052542 -0.27297375
0.10965592 -0.1505152 -0.29357296
0.12095475 -0.15050563 -0.31285146
-0.17078072 -0.17559478 -0.37066579
0.22517702 -0.12250464 0.17961103
0.22515863 -0.12329652 0.16144109
-0.03017813 -0.15066122 0.0038581789
-0.015047729 -0.15064652 -0.023742273
-0.0042948723 -0.15063599 -0.043355152
0.0076535344 -0.15062425 -0.065148711
0.023698747 -0.15060851 -0.094414502
0.03427273 -0.15059814 -0.11370116
0.045749784 -0.15058687 -0.13463497
0.056627452 -0.1505762 -0.1544755
0.066951454 -0.15056607 -0.17330618
0.077955484 -0.15055528 -0.193377
0.089485228 -0.15054396 -0.21440692
0.10034341 -0.15053332 -0.23421186
0.11058468 -0.15052345 -0.25289589
0.12212133 -0.1505134 -0.27396715
0.1329248 -0.15050396 -0.29369926
-0.200266 -0.17934655 -0.34149647
-0.17263252 -0.17712581 -0.34147209
0.22522506 -0.12250193 0.22820252
0.22520843 -0.12320066 0.21171293
0.0089343786 -0.15063816 -0.010024816
0.018910766 -0.15062803 -0.029485792
0.028457582 -0.15061834 -0.048108771
0.039088607 -0.15060759 -0.068846807
0.049211204 -0.15059729 -0.088592902
0.060202658 -0.15058616 -0.11003405
0.069351256 -0.15057684 -0.12788038
0.080519557 -0.15056553 -0.14966634
0.089927077 -0.15055598 -0.16801766
0.099971473 -0.15054581 -0.18761112
0.1105147 -0.15053511 -0.20817795
0.12046182 -0.150525 -0.22758183
0.13077044 -0.1505148 -0.24769686
0.14131814 -0.1505053 -0.26830101
0.22527292 -0.12261989 0.27666754
0.22525254 -0.12345436 0.25639683
0.044065356 -0.15061736 -0.022494569
0.051377892 -0.15060967 -0.037739351
0.061196208 -0.15059938 -0.058207899
0.070556223 -0.15058956 -0.077721119
0.080732405 -0.15057884 -0.098935902
0.090393364 -0.15056869 -0.1190764
0.099577188 -0.15055907 -0.13822225
0.10938156 -0.15054876 -0.15866168
0.11866981 -0.15053901 -0.17802534
0.12843305 -0.15052876 -0.19837905
0.13765687 -0.15051907 -0.21760826
0.14723152 -0.15050903 -0.23756941
0.15703887 -0.15049994 -0.25804424
0.22530195 -0.12360053 0.30641991
0.074478388 -0.15059996 -0.030831277
0.082227647 -0.15059155 -0.048086777
0.092090786 -0.15058082 -0.070049271
0.1003105 -0.15057188 -0.088352248
0.10926861 -0.15056214 -0.10829936
0.1188308 -0.15055174 -0.12959178
0.12690598 -0.15054294 -0.14757286
0.13648123 -0.15053254 -0.16889426
0.14552492 -0.15052271 -0.18903208
0.15899509 -0.15050806 -0.21902633
0.10342646 -0.15058276 -0.041220412
0.11138672 -0.15057379 -0.060144916
0.11900151 -0.15056519 -0.078248113
0.12730926 -0.15055585 -0.097998798
0.13618755 -0.15054582 -0.11910596
0.14821166 -0.15053228 -0.14769188
0.15687436 -0.15052252 -0.16828626
0.16507202 -0.15051326 -0.18777516
0.22491032 -0.1425076 -0.079793692
0.1298092 -0.15056711 -0.050688848
0.13686436 -0.15055886 -0.068591654
0.14828682 -0.15054549 -0.097576693
0.15634108 -0.15053609 -0.11801456
0.16808015 -0.15052235 -0.14780286
0.17591846 -0.15051407 -0.16771637
-0.21996564 -0.19511098 -0.34151262
0.22495657 -0.14254475 -0.033093274
0.22493669 -0.14326315 -0.052858189
0.15756792 -0.15054835 -0.06914337
0.16875249 -0.15053478 -0.099432468
0.1760096 -0.15052745 -0.11912715
0.18663758 -0.15051435 -0.14790344
0.22500795 -0.14250913 0.018825918
0.2249909 -0.14310536 0.0018610656
0.17529017 -0.15054283 -0.064944506
0.181696 -0.1505346 -0.083454818
0.18856931 -0.15052578 -0.10331561
0.19582182 -0.15051647 -0.12427235
-0.19875139 -0.1985887 -0.3414917
0.22506076 -0.14254893 0.072145581
0.22504017 -0.14324084 0.051762521
0.19582009 -0.15053082 -0.072393507
-0.170771 -0.19862035 -0.34838924
0.22511962 -0.14251089 0.13169643
0.22509998 -0.14314969 0.1121887
0.22507852 -0.14385056 0.090785503
0.22518039 -0.14255378 0.19314963
0.22515416 -0.14337803 0.16702235
0.22513369 -0.14401957 0.14668679
-0.17079526 -0.20459241 -0.3693414
0.22524869 -0.14251295 0.26214725
0.22522876 -0.14311582 0.24228388
0.22520649 -0.14378856 0.22011775
0.22529191 -0.14336152 0.30623448
0.22527096 -0.14396915 0.2853927
-0.19855613 -0.19249673 0.34120703
-0.21797168 -0.19479455 0.34118915
-0.17003334 -0.19112319 0.39398152
-0.17006332 -0.19195922 0.36407918
-0.17956525 -0.19374959 0.34122568
0.19535774 -0.15514793 0.34158444
0.17597026 -0.15768608 0.34156424
-0.19130987 -0.20576885 0.34121889
-0.1700415 -0.20872919 0.39462107
0.17586386 -0.17898063 0.34157097
0.19512087 -0.18279299 0.34158921
0.17577016 -0.19776452 0.34157676
